ply
 format ascii 1.0
 comment generated
 element vertex 8626
 property float x
 property float y
 property float z
 property float nx
 property float ny
 property float nz
 end_header
0.129857 0.000666 -0.229793 -0.000000 1.003814 0.003922
0.299661 -0.239324 -0.166802 0.552941 0.003922 -0.835294
0.148038 -0.315411 -0.259908 0.000000 -1.003814 0.003922
0.089746 -0.239899 0.000000 -0.003922 -0.003922 1.000000
0.029340 -0.169137 0.000000 -0.003922 -0.003922 1.000000
0.289572 0.000486 -0.109753 0.000000 1.003814 -0.003922
0.249584 -0.089988 -0.200532 0.552941 0.005546 -0.831890
0.000581 -0.259480 -0.069095 -1.003814 -0.003922 0.000000
-0.001583 -0.048913 -0.166001 -0.552941 -0.005546 -0.831890
0.309681 -0.299812 -0.159651 0.554594 -0.003922 -0.837436
0.229431 -0.229798 0.000512 0.000000 0.003922 1.003814
0.239899 0.000000 -0.048325 0.003922 1.000000 0.003922
0.139941 -0.139298 -0.260143 -0.552941 0.005546 -0.831890
0.219540 -0.238946 -0.000506 0.003922 0.000000 1.003815
0.269920 -0.249629 0.000504 0.003922 0.000000 1.003814
0.229543 -0.300000 -0.169137 -0.003921 -1.000000 0.003922
0.249629 -0.089500 0.000504 0.000000 0.003922 1.003814
0.000640 0.000000 -0.069825 -1.003814 0.003921 0.000000
0.299531 -0.199895 -0.029942 1.003814 0.003922 0.000000
0.149166 -0.249629 0.000504 0.003922 0.000000 1.003814
0.018985 -0.189848 0.000000 -0.003922 -0.003922 1.000000
-0.010152 -0.179836 -0.159683 -0.552941 0.003921 -0.835294
0.279978 -0.189927 -0.179460 0.554594 0.003922 -0.837436
-0.000584 -0.059031 -0.119026 -1.003814 -0.000000 0.003922
0.219288 0.000525 -0.199588 0.003921 1.003814 -0.000000
0.249629 0.000504 -0.079555 0.000000 1.003814 -0.003922
-0.015749 -0.279911 -0.149456 0.552941 -0.005546 0.831890
0.169813 0.000708 -0.007985 0.003921 1.003814 -0.000000
0.000639 -0.099653 -0.069823 -1.003814 -0.003922 -0.000000
0.259769 -0.300554 -0.168617 0.003922 -1.003814 0.000000
0.149700 -0.299583 -0.029440 0.000000 -1.003814 -0.003922
0.000572 -0.199058 -0.088687 -1.003814 -0.003922 0.000000
0.239899 -0.239899 0.000000 -0.003922 -0.003922 1.000000
0.099798 -0.098703 -0.233470 -0.552941 -0.003922 -0.835294
0.229431 -0.219681 0.000512 0.000000 0.003922 1.003814
0.179000 -0.249629 0.000504 0.003922 0.000000 1.003814
0.109763 -0.159877 0.000658 -0.000000 -0.003922 1.003814
0.198888 -0.249629 0.000504 0.003922 0.000000 1.003814
0.169137 -0.229543 0.000000 -0.003922 -0.003922 1.000000
0.299522 -0.289952 -0.009623 1.003814 0.003922 0.000000
0.269701 -0.000567 -0.099328 -0.003922 1.003814 0.000000
0.129856 0.000000 0.000668 -0.000000 -0.003922 1.003814
0.000563 -0.049370 -0.109797 -1.003814 -0.003922 0.000000
0.160300 -0.262920 -0.260020 0.554594 0.005546 -0.835294
0.069980 -0.219067 0.000516 0.003922 0.000000 1.003814
0.049731 -0.089792 -0.199594 -0.552941 0.003921 -0.835294
0.209366 -0.249548 0.000702 -0.000000 -0.003922 1.003814
-0.000623 -0.029259 -0.089803 -1.003814 0.000000 -0.003922
0.228722 -0.249629 0.000504 0.003922 0.000000 1.003814
0.049731 -0.069071 -0.199594 -0.552941 0.003921 -0.835294
0.239617 -0.249315 0.000508 0.000000 0.003922 1.003814
0.219288 -0.199588 0.000525 0.003922 0.000000 1.003814
0.139734 -0.299579 -0.209397 0.000000 -1.003814 -0.003922
0.129856 -0.209074 0.000667 -0.000000 -0.003922 1.003814
0.003466 -0.300478 -0.109752 0.000000 -1.003814 0.003922
0.239706 -0.299499 -0.047519 0.003922 -1.003814 -0.000000
0.209561 -0.000518 -0.098542 -0.000000 1.003814 0.003922
0.219366 -0.300574 -0.069952 0.000000 -1.003814 -0.003922
0.289975 0.000614 -0.009208 -0.003922 1.003814 0.000000
0.098514 -0.239891 0.000654 -0.000000 -0.003922 1.003814
0.148972 0.000546 -0.169776 0.000000 1.003814 -0.003922
0.099798 -0.229674 -0.233470 -0.552941 -0.003922 -0.835294
0.250095 -0.146722 -0.200143 0.552941 0.005546 -0.831890
0.149650 0.000723 -0.029155 -0.003922 1.003814 0.000000
0.066291 -0.179860 -0.209996 -0.560140 0.003921 -0.831890
0.300497 0.000000 -0.039995 1.003814 0.003922 0.000000
0.000000 -0.239899 0.000000 -0.003922 -0.003922 1.000000
0.149032 0.000603 -0.259241 -0.552941 -0.005546 0.831890
0.036272 -0.059994 -0.189979 -0.560140 0.003921 -0.831890
0.000674 -0.269129 -0.149137 -1.003814 -0.003922 -0.000000
0.300305 0.000000 -0.129442 0.003922 1.000000 0.003922
0.269828 0.000572 -0.089687 0.003921 1.003814 -0.000000
0.149700 -0.299583 -0.189592 0.000000 -1.003814 -0.003922
-0.023978 -0.058958 -0.149921 -0.827451 -0.003922 0.560784
0.189848 -0.039695 0.000000 -0.003922 -0.003922 1.000000
0.109763 -0.169173 0.000658 -0.000000 -0.003922 1.003814
-0.000646 -0.209505 -0.079223 -1.003814 -0.003922 0.000000
0.279976 -0.139132 0.000551 0.003922 0.000000 1.003814
0.000674 -0.129793 -0.149137 -1.003814 -0.003922 -0.000000
0.109946 -0.039498 0.000627 -0.003922 0.000000 1.003814
0.089300 -0.049884 0.000632 -0.003922 0.000000 1.003814
0.029340 -0.189848 0.000000 -0.003922 -0.003922 1.000000
0.324835 -0.049365 -0.149595 0.827451 0.000000 0.560140
0.109763 -0.239816 0.000658 -0.000000 -0.003922 1.003814
0.299563 -0.019814 -0.099911 1.003814 0.003922 0.000000
0.000000 -0.189848 -0.039695 -1.000000 0.003921 0.003922
0.299507 -0.249586 -0.027826 1.003814 0.003922 -0.000000
0.019164 -0.139882 0.000619 -0.000000 -0.003922 1.003814
0.039498 -0.079800 0.000627 -0.000000 -0.003922 1.003814
0.159498 -0.049912 0.000680 -0.000000 -0.003922 1.003814
0.169149 0.000758 -0.109648 -0.003922 1.003814 0.000000
0.139797 -0.239899 0.000000 -0.003922 -0.003922 1.000000
0.139737 -0.128230 -0.000554 0.003922 0.000000 1.003815
0.325040 -0.059805 -0.149245 0.552941 0.000000 -0.826345
0.039498 -0.109946 0.000627 -0.000000 -0.003922 1.003814
0.169137 -0.239899 0.000000 -0.003922 -0.003922 1.000000
0.079484 -0.269438 -0.219424 -0.552941 0.003921 -0.835294
0.129138 -0.219466 0.000555 0.000000 0.003922 1.003814
0.269667 -0.299585 -0.149703 0.003922 -1.003814 0.000000
0.189848 -0.239899 0.000000 -0.003922 -0.003922 1.000000
0.139882 -0.019164 0.000619 -0.003922 0.000000 1.003814
0.209074 0.000668 -0.129855 -0.003922 1.003814 0.000000
0.289950 -0.129442 0.000000 -0.003922 -0.003922 1.000000
0.109763 -0.059489 0.000658 -0.000000 -0.003922 1.003814
0.129572 -0.313470 -0.099110 -0.152941 -0.992723 -0.000000
0.029739 -0.119822 -0.186731 -0.552941 0.005546 -0.831890
0.009208 -0.079873 0.000614 -0.000000 -0.003922 1.003814
-0.009550 -0.049718 -0.159632 -0.552941 -0.005546 -0.831890
0.119086 -0.139797 0.000000 -0.003922 -0.003922 1.000000
0.038565 -0.209763 0.000594 0.000000 0.003922 1.003814
0.079350 -0.059032 0.000585 0.003922 0.000000 1.003814
0.209560 -0.069127 -0.000519 0.000000 0.003922 1.003814
0.148867 -0.300415 -0.169573 0.000000 -1.003814 0.003922
0.029269 -0.229764 0.000598 0.000000 0.003922 1.003814
0.019821 -0.019821 -0.179660 -0.552941 0.003921 -0.835294
0.249315 -0.239617 0.000508 0.003922 0.000000 1.003814
0.129436 -0.315640 -0.119892 -0.216291 -0.976085 -0.003922
0.039695 -0.119086 0.000000 -0.003922 -0.003922 1.000000
0.300447 -0.078995 -0.119968 1.003814 0.000000 -0.003922
0.075185 -0.315442 -0.209861 0.000000 -1.003814 0.003922
0.139797 -0.139797 0.000000 -0.003922 -0.003922 1.000000
0.000000 -0.078034 -0.159332 0.552941 -0.003921 0.835294
0.019805 -0.118442 -0.180310 -0.552941 -0.005546 -0.831890
0.325067 -0.289832 -0.150086 0.827451 0.000000 0.560140
0.279594 -0.129442 0.000000 -0.003922 -0.003922 1.000000
0.149650 -0.000522 -0.027910 -0.003922 1.003814 -0.000000
0.139797 0.000000 -0.179493 0.003922 1.000000 0.003922
0.026722 -0.159955 0.000622 -0.000000 -0.003922 1.003814
0.189929 -0.028852 -0.239232 0.560140 -0.003922 -0.831890
-0.000504 -0.249629 0.000000 -1.003814 -0.000000 0.003922
0.049884 -0.028576 0.000632 -0.000000 -0.003922 1.003814
-0.000571 -0.079171 -0.089686 -1.003814 0.003921 -0.000000
0.129767 -0.058496 -0.253481 -0.552941 -0.003922 -0.835294
0.139132 -0.099547 0.000551 0.000000 0.003922 1.003814
0.299412 -0.249027 -0.149796 1.003814 -0.000000 -0.003922
0.109492 -0.308556 -0.037578 -0.474510 -0.743155 -0.471405
0.029006 -0.300467 -0.129733 0.000000 -1.003814 0.003922
0.300472 -0.016385 -0.149990 1.003814 0.000000 -0.003922
0.069304 -0.309829 -0.212639 -0.552941 0.003921 -0.835294
0.249629 -0.129277 0.000504 0.000000 0.003922 1.003814
0.289527 -0.029826 -0.173970 0.552941 0.005546 -0.831890
0.089518 -0.148972 0.000547 0.003922 0.000000 1.003814
0.199588 -0.229660 0.000525 0.000000 0.003922 1.003814
0.179884 -0.000635 -0.059145 -0.003922 1.003814 -0.000000
0.289950 -0.169137 0.000000 -0.003922 -0.003922 1.000000
0.238946 -0.199451 -0.000506 0.000000 0.003922 1.003814
-0.009538 -0.269996 -0.159246 -0.554594 0.005546 -0.835294
0.059956 -0.300493 -0.028812 0.003922 -1.003814 0.000000
0.109137 -0.027985 -0.239712 -0.552941 0.005546 -0.831890
0.079391 -0.229543 0.000000 -0.003922 -0.003922 1.000000
0.178867 -0.299593 -0.169035 0.003922 -1.003814 0.000000
0.189750 -0.269094 -0.000528 0.000000 0.003922 1.003814
0.249629 0.000504 -0.119333 0.000000 1.003814 -0.003922
-0.009449 -0.069887 -0.159850 -0.554594 -0.003922 -0.837436
0.109835 -0.300432 -0.159277 0.000000 -1.003814 0.003922
0.000622 -0.149671 -0.028014 -1.003814 -0.003922 -0.000000
0.299631 -0.259799 -0.119964 1.003814 0.000000 0.003922
0.136408 0.014289 -0.249801 0.554594 -0.005546 0.835294
0.148881 -0.229312 -0.266867 -0.554594 -0.005546 -0.835294
0.000000 -0.139797 -0.029340 -1.000000 0.003921 0.003922
0.109762 0.000660 -0.029745 -0.000000 1.003814 0.003922
0.089687 -0.159958 0.000572 0.000000 0.003922 1.003814
0.036358 -0.069920 -0.189749 -0.552941 -0.003922 -0.835294
0.079391 -0.029340 0.000000 -0.003922 -0.003922 1.000000
0.199777 -0.049221 0.000698 -0.000000 -0.003922 1.003814
0.309681 0.014991 -0.159651 0.554594 0.003922 -0.837436
0.249629 0.000504 -0.029833 0.000000 1.003814 -0.003922
0.089746 -0.229543 0.000000 -0.003922 -0.003922 1.000000
0.289950 -0.039695 0.000000 -0.003922 -0.003922 1.000000
0.069267 -0.029269 0.000598 0.003922 0.000000 1.003814
0.129856 -0.229793 0.000667 -0.000000 -0.003922 1.003814
0.289572 -0.209902 0.000486 0.000000 0.003922 1.003814
0.294747 -0.047891 -0.170557 0.552941 -0.005546 -0.831890
0.173499 -0.239950 -0.251103 0.552941 0.005546 -0.831890
0.097001 -0.249240 -0.229873 -0.552941 0.000000 -0.826345
0.219908 0.000534 -0.179464 0.003921 1.003814 -0.000000
0.028990 -0.000640 -0.069825 -0.003922 1.003814 -0.000000
0.148972 -0.149712 0.000547 0.000000 0.003922 1.003814
0.189848 -0.229543 0.000000 -0.003922 -0.003922 1.000000
0.300487 -0.159808 -0.015137 1.003814 0.003922 0.000000
0.189848 0.000000 -0.039695 0.003922 1.000000 0.003922
0.269827 -0.000635 -0.059146 -0.003922 1.003814 -0.000000
0.149016 0.000506 -0.239616 0.003921 1.003814 -0.000000
0.280388 -0.018521 -0.180069 0.552941 0.005546 -0.831890
0.079391 0.000000 -0.079391 0.003922 1.000000 0.003922
0.119521 -0.079437 -0.246588 -0.552941 0.005546 -0.831890
0.299640 -0.279461 -0.149817 1.003814 0.000000 0.003922
-0.024944 0.004402 -0.149825 -0.552941 0.003921 -0.835294
0.299648 -0.299648 -0.119342 0.000000 -1.003814 -0.003922
-0.000629 -0.109946 -0.039497 -1.003814 -0.003922 0.000000
0.119711 -0.311409 -0.059264 -0.537255 -0.848528 -0.000000
-0.000499 -0.259472 -0.069023 -1.003814 -0.000000 0.003922
0.169776 -0.148972 0.000547 0.003922 0.000000 1.003814
0.089756 -0.300412 -0.158641 -0.003921 -1.003814 -0.000000
0.049705 -0.179464 0.000533 0.003922 0.000000 1.003814
0.129944 -0.300483 -0.007089 0.003922 -1.003814 0.000000
0.259472 -0.229606 0.000499 0.000000 0.003922 1.003814
0.109941 -0.018995 -0.240255 -0.552941 0.005546 -0.831890
0.119672 -0.099934 -0.247243 -0.554594 -0.005546 -0.835294
0.289950 0.000000 -0.058680 0.003922 1.000000 0.003922
0.089942 -0.059146 -0.000635 -0.003922 0.000000 1.003814
0.209905 0.000546 -0.148972 0.003921 1.003814 -0.000000
0.069453 -0.219883 -0.213109 -0.552941 0.005546 -0.831890
0.279823 -0.148787 0.000733 -0.000000 -0.003922 1.003814
0.019821 -0.259094 -0.179660 -0.552941 0.003921 -0.835294
0.279823 -0.229380 0.000733 -0.000000 -0.003922 1.003814
0.300510 -0.279994 -0.068927 1.003814 0.003922 0.000000
0.309433 0.014297 -0.160745 0.552941 0.005546 -0.831890
0.000837 -0.169050 -0.069948 -1.003814 0.000000 -0.003922
0.259472 0.000500 -0.109873 0.000000 1.003814 -0.003922
0.018675 -0.059634 -0.000602 0.000000 0.003922 1.003814
0.179464 0.000533 -0.159660 0.000000 1.003814 -0.003922
0.249629 -0.218777 0.000504 0.000000 0.003922 1.003814
0.053145 -0.139095 -0.199971 -0.549048 -0.000000 -0.835294
-0.017805 -0.259823 -0.149660 0.552941 0.000000 0.826344
0.209560 -0.258857 -0.000519 0.000000 0.003922 1.003814
0.111508 -0.209898 -0.239893 -0.552941 -0.003922 -0.835294
0.269507 -0.138247 -0.000550 0.003922 0.000000 1.003815
0.239891 -0.098514 0.000654 -0.003922 0.000000 1.003814
0.119364 -0.309961 -0.246289 -0.552941 0.005546 -0.831890
0.158245 -0.300547 -0.159879 0.000000 -1.003814 -0.003922
0.289221 -0.315401 -0.169437 0.003922 -1.003814 0.000000
0.005469 -0.219965 0.000608 0.000000 0.003922 1.003814
-0.010152 -0.259603 -0.159683 -0.552941 0.003921 -0.835294
0.066291 -0.018606 -0.209996 -0.560140 0.003921 -0.831890
0.028014 -0.000622 -0.029934 0.000000 1.003814 -0.003922
0.089686 0.000571 -0.069477 0.000000 1.003814 -0.003922
0.249974 -0.149156 -0.199792 0.552941 -0.003922 -0.835294
0.249629 -0.019889 0.000504 0.000000 0.003922 1.003814
0.249662 -0.300372 -0.029530 0.000000 -1.003814 0.003922
0.178668 -0.129731 -0.000532 0.000000 0.003922 1.003814
0.219878 -0.300000 -0.119604 -0.003921 -1.000000 0.003922
0.179493 0.000000 -0.139797 0.003922 1.000000 0.003922
0.049883 0.000632 -0.169670 -0.000000 1.003814 0.003922
0.069996 -0.299438 -0.188760 0.003922 -1.003814 -0.000000
0.111508 -0.259749 -0.239893 -0.552941 -0.003922 -0.835294
0.279010 -0.209806 -0.180106 0.554594 0.003922 -0.837436
0.218863 -0.279646 -0.000488 0.003922 0.000000 1.003815
0.269239 -0.169137 0.000000 -0.003922 -0.003922 1.000000
0.069882 -0.007681 -0.213573 -0.552941 0.005546 -0.831890
0.249629 -0.139222 0.000504 0.000000 0.003922 1.003814
0.000488 -0.279646 -0.049868 -1.003814 0.000000 -0.003922
-0.000632 -0.229982 -0.047273 -1.003814 -0.003922 0.000000
0.099027 0.000701 -0.209367 -0.003922 1.003814 0.000000
0.129856 -0.169520 0.000667 -0.000000 -0.003922 1.003814
0.159897 -0.129138 0.000555 0.003922 0.000000 1.003814
0.204052 -0.309871 -0.231204 0.552941 -0.005546 -0.831890
0.229543 -0.179493 0.000000 -0.003922 -0.003922 1.000000
0.289950 0.000000 -0.119086 0.003922 1.000000 0.003922
0.099328 -0.229567 -0.000567 0.000000 0.003922 1.003814
0.149449 -0.300484 -0.009759 0.003922 -1.003814 0.000000
0.089687 -0.219740 0.000572 0.000000 0.003922 1.003814
-0.001858 -0.159606 -0.108376 -1.003814 -0.003922 0.000000
0.289572 -0.149538 0.000486 0.000000 0.003922 1.003814
0.000593 -0.039751 -0.048665 -1.003814 0.000000 -0.003922
0.019646 -0.049884 0.000632 -0.003922 0.000000 1.003814
0.159498 -0.209248 0.000680 -0.000000 -0.003922 1.003814
0.189774 -0.279646 -0.000488 0.003922 0.000000 1.003815
0.059782 0.000572 -0.089687 0.003921 1.003814 -0.000000
0.258840 -0.259552 -0.000498 0.000000 0.003922 1.003814
0.058680 -0.179493 0.000000 -0.003922 -0.003922 1.000000
-0.000585 -0.119026 -0.059032 -1.003814 0.003921 -0.000000
0.179555 -0.000685 -0.029188 0.000000 1.003814 -0.003922
0.118311 0.000661 -0.229945 -0.000000 1.003814 0.003922
0.051222 -0.089574 -0.199948 -0.560140 0.003921 -0.831890
0.119026 -0.059032 0.000585 0.003922 0.000000 1.003814
-0.009449 -0.039501 -0.159850 -0.554594 -0.003922 -0.837436
0.300849 -0.219070 0.000706 0.003922 0.000000 1.003814
0.118985 -0.219620 0.000559 0.000000 0.003922 1.003814
0.219916 0.001746 -0.219762 0.549048 -0.000000 -0.835294
0.259998 -0.315557 -0.192527 0.003922 -1.003814 0.000000
0.259472 -0.149314 0.000499 0.000000 0.003922 1.003814
0.159528 -0.299615 -0.219261 0.003922 -1.003814 0.000000
0.109946 0.000628 -0.039498 -0.003922 1.003814 0.000000
0.189929 -0.169503 -0.239232 0.560140 -0.003922 -0.831890
0.229543 -0.189848 0.000000 -0.003922 -0.003922 1.000000
0.001832 0.000611 -0.139918 -0.000000 1.003814 0.003922
-0.011040 -0.249657 -0.159452 -0.552941 0.005546 -0.831890
0.300482 -0.259889 -0.007089 1.003814 0.003922 0.000000
0.139797 -0.219188 0.000000 -0.003922 -0.003922 1.000000
0.139651 -0.258840 -0.000498 0.003922 0.000000 1.003815
0.000000 -0.079391 -0.048325 -1.000000 0.003921 0.003922
0.039937 -0.009208 0.000614 -0.003922 0.000000 1.003814
0.159561 -0.000688 -0.179559 -0.003922 1.003814 -0.000000
0.179464 0.000534 -0.149116 0.000000 1.003814 -0.003922
0.239899 -0.029340 0.000000 -0.003922 -0.003922 1.000000
0.300482 -0.229796 -0.007089 1.003814 -0.003921 0.000000
0.234225 -0.026949 -0.210867 0.552941 -0.005546 -0.831890
0.131922 0.000676 -0.078988 0.003921 1.003814 -0.000000
0.159390 -0.219070 0.000706 -0.003922 0.000000 1.003814
-0.001006 -0.039098 -0.166603 -0.554594 -0.005546 -0.835294
0.019163 0.000619 -0.139882 -0.000000 1.003814 0.003922
0.119565 -0.089687 0.000572 0.003922 0.000000 1.003814
0.300404 -0.179460 -0.129991 1.003814 0.000000 -0.003922
0.058390 0.000668 -0.129856 -0.003922 1.003814 0.000000
0.209786 0.009687 -0.227119 0.552941 -0.005546 -0.831890
0.249759 -0.300563 -0.189884 0.003922 -1.003814 0.000000
0.149116 0.000532 -0.179463 0.003921 1.003814 -0.000000
0.279646 -0.119128 -0.000488 0.000000 0.003922 1.003814
0.119946 0.000654 -0.098513 -0.003922 1.003814 0.000000
0.109466 -0.300403 -0.179459 -0.003921 -1.003814 -0.000000
0.259472 -0.219745 0.000499 0.000000 0.003922 1.003814
0.207949 -0.279736 -0.228115 0.552941 0.005546 -0.831890
0.249974 -0.209923 -0.199792 0.552941 -0.003922 -0.835294
0.029100 -0.159744 -0.000541 0.003922 0.000000 1.003815
0.279594 0.000000 -0.079391 0.003922 1.000000 0.003922
0.289950 -0.119086 0.000000 -0.003922 -0.003922 1.000000
-0.024944 -0.159937 -0.149825 -0.552941 0.003921 -0.835294
0.199775 0.000699 -0.129943 -0.000000 1.003814 0.003922
0.000640 -0.069824 -0.000000 -1.003814 -0.000000 0.003922
-0.000627 -0.039498 -0.148960 -1.003814 0.000000 -0.003922
0.259918 -0.139495 -0.193605 0.552941 0.005546 -0.831890
0.029340 -0.139797 0.000000 -0.003922 -0.003922 1.000000
0.159557 0.000660 -0.119069 0.003921 1.003814 -0.000000
0.289614 -0.199734 -0.173372 0.552941 -0.003922 -0.835294
-0.000499 -0.259472 -0.019721 -1.003814 -0.000000 0.003922
0.199777 -0.019688 0.000698 -0.000000 -0.003922 1.003814
0.159464 -0.299587 -0.037301 0.000000 -1.003814 -0.003922
0.299613 -0.219260 0.000000 1.003814 0.000000 0.003922
0.269828 -0.089687 0.000572 0.003922 0.000000 1.003814
-0.000560 -0.118986 0.000000 -1.003814 -0.000000 0.003922
0.239964 -0.159498 0.000680 -0.003922 0.000000 1.003814
0.248978 -0.049793 -0.000502 0.000000 0.003922 1.003814
-0.000659 -0.109762 -0.059489 -1.003814 0.000000 -0.003922
0.173009 -0.269619 -0.251854 0.552941 -0.005546 -0.831890
0.001832 -0.139918 0.000611 -0.000000 -0.003922 1.003814
0.179464 -0.069286 0.000533 0.000000 0.003922 1.003814
0.269685 0.000632 -0.049883 -0.003922 1.003814 0.000000
0.219901 0.000576 -0.078899 0.003921 1.003814 -0.000000
0.249629 -0.169055 0.000504 0.000000 0.003922 1.003814
0.299631 -0.259799 -0.069892 1.003814 0.000000 0.003922
0.015138 -0.300486 -0.119856 0.000000 -1.003814 -0.003922
0.049883 0.000633 -0.019646 -0.000000 1.003814 0.003922
0.189848 -0.179493 0.000000 -0.003922 -0.003922 1.000000
0.249548 -0.209366 0.000702 -0.003922 0.000000 1.003814
0.000502 -0.248978 -0.139420 -1.003814 0.000000 -0.003922
-0.011368 -0.219990 -0.159258 -0.552941 0.005546 -0.831890
0.299526 -0.129601 -0.019877 1.003814 0.003922 0.000000
0.119285 -0.300484 -0.009759 0.003922 -1.003814 0.000000
0.059634 -0.018675 -0.000602 0.003922 0.000000 1.003815
0.249629 0.000504 -0.039778 0.000000 1.003814 -0.003922
0.059032 0.000000 0.000585 0.000000 0.003922 1.003814
0.099828 -0.129856 0.000667 -0.003922 0.000000 1.003814
0.279646 -0.268730 -0.000488 0.000000 0.003922 1.003814
0.000520 -0.209560 -0.079422 -1.003814 0.000000 -0.003922
0.000541 -0.159743 -0.128655 -1.003814 0.000000 -0.003922
0.189848 0.000000 -0.079391 0.003922 1.000000 0.003922
0.118973 -0.000712 -0.237407 -0.003922 1.003814 -0.000000
-0.000000 0.000653 -0.098515 -0.003922 1.003814 0.000000
0.219929 -0.016662 0.000618 -0.003922 0.000000 1.003814
0.239188 -0.299622 -0.089740 0.000000 -1.003814 -0.003922
0.224226 -0.276458 -0.048202 0.000000 -0.981631 0.215686
0.148972 -0.209905 0.000547 0.000000 0.003922 1.003814
0.099327 -0.000568 -0.149299 -0.000000 1.003814 0.003922
0.264183 -0.289546 -0.190491 0.552941 0.003922 -0.835294
-0.021494 -0.099554 -0.152977 -0.554594 -0.005546 -0.835294
0.000541 -0.159744 -0.009190 -1.003814 0.000000 -0.003922
0.098376 -0.189848 0.000000 -0.003922 -0.003922 1.000000
0.300270 -0.300483 -0.009760 0.003922 -1.003814 0.000000
-0.000592 -0.239969 -0.038563 -1.003814 0.003921 -0.000000
0.259801 -0.000600 -0.023414 -0.003922 1.003814 0.000000
-0.024944 -0.019075 -0.149825 -0.552941 0.003921 -0.835294
0.109687 -0.299515 -0.008789 0.003922 -1.003814 -0.000000
0.169032 -0.299591 -0.028850 0.000000 -1.003814 -0.003922
0.209523 -0.289595 -0.226752 0.552941 -0.003922 -0.835294
0.129738 0.000767 -0.099814 -0.000000 1.003814 0.003922
0.069036 -0.039695 0.000000 -0.003922 -0.003922 1.000000
0.189848 -0.008629 0.000000 -0.003922 -0.003922 1.000000
0.229543 0.000000 -0.139797 0.003922 1.000000 0.003922
0.289843 -0.009582 -0.173794 0.552941 -0.005546 -0.831890
0.128524 -0.129965 -0.000665 0.000000 -0.003922 1.003814
0.018985 -0.089746 0.000000 -0.003922 -0.003922 1.000000
-0.008702 -0.118924 -0.159683 -0.552941 -0.003922 -0.835294
0.179464 -0.209365 0.000533 0.000000 0.003922 1.003814
0.079223 -0.069228 0.000645 -0.000000 -0.003922 1.003814
0.059056 -0.299543 -0.189374 0.000000 -1.003814 -0.003922
0.119856 -0.099267 -0.000661 0.000000 -0.003922 1.003814
0.079391 -0.079391 0.000000 -0.003922 -0.003922 1.000000
-0.000683 -0.168615 -0.119712 -1.003814 0.000000 -0.003922
-0.000628 -0.039498 -0.019507 -1.003814 0.000000 -0.003922
0.009938 0.014393 -0.173766 0.000000 1.003814 -0.003922
0.139797 -0.119086 0.000000 -0.003922 -0.003922 1.000000
0.189433 -0.099328 -0.000567 0.003922 0.000000 1.003815
0.000661 -0.239740 -0.119856 -1.003814 -0.003922 -0.000000
0.149733 -0.009471 -0.266208 0.552941 -0.005546 -0.831890
0.269348 0.000667 -0.129856 -0.003922 1.003814 0.000000
0.000000 -0.249894 -0.158891 0.552941 0.005546 0.831890
0.006122 -0.299515 -0.129944 0.000000 -1.003814 0.003922
0.219935 0.000568 -0.098192 0.003921 1.003814 -0.000000
-0.000633 -0.169669 -0.049883 -1.003814 -0.003922 0.000000
0.300000 -0.219878 -0.129269 1.000000 -0.003921 0.003922
0.279791 -0.300524 -0.099348 0.003922 -1.003814 0.000000
0.068852 -0.000640 -0.069825 -0.003922 1.003814 -0.000000
0.127413 -0.049698 -0.249918 -0.552941 -0.000000 -0.826345
0.149501 -0.179908 -0.265912 0.552941 0.003922 -0.835294
0.148922 -0.300391 -0.209907 -0.003921 -1.003814 -0.000000
0.239646 -0.209366 0.000702 -0.003922 0.000000 1.003814
0.119086 -0.169137 0.000000 -0.003922 -0.003922 1.000000
0.259746 -0.300000 -0.089401 -0.003921 -1.000000 0.003922
-0.000614 -0.239620 -0.009208 -1.003814 -0.003922 0.000000
0.159080 -0.002367 -0.099893 0.003922 1.003814 0.000000
0.171416 -0.009670 -0.252822 0.554594 0.005546 -0.835294
0.069036 -0.079391 0.000000 -0.003922 -0.003922 1.000000
0.239899 0.000000 -0.189848 0.003922 1.000000 0.003922
-0.010940 -0.239748 -0.159926 -0.552941 -0.005546 -0.831890
0.009990 -0.089909 -0.173107 -0.552941 0.003921 -0.835294
0.209798 0.000641 -0.068418 -0.003922 1.003814 0.000000
0.129138 -0.159897 0.000555 0.000000 0.003922 1.003814
0.079347 -0.249620 -0.219814 -0.552941 -0.003922 -0.835294
0.300352 -0.298945 -0.149177 1.003814 0.000000 -0.003922
0.159425 -0.300575 -0.219364 0.003922 -1.003814 0.000000
-0.009449 -0.229411 -0.159850 -0.554594 -0.003922 -0.837436
-0.000487 -0.289572 -0.039785 -1.003814 -0.000000 0.003922
0.079809 -0.259779 -0.219377 -0.554594 -0.003922 -0.837436
0.169137 -0.179493 0.000000 -0.003922 -0.003922 1.000000
0.000000 -0.199777 0.000698 -0.003922 0.000000 1.003814
0.229543 -0.089746 0.000000 -0.003922 -0.003922 1.000000
0.279975 -0.000571 -0.088688 -0.003922 1.003814 0.000000
-0.010651 -0.238786 -0.160344 -0.554594 -0.005546 -0.835294
0.005469 -0.109982 0.000608 0.000000 0.003922 1.003814
-0.000658 -0.109764 -0.139428 -1.003814 0.000000 -0.003922
0.289572 0.000486 -0.149538 0.000000 1.003814 -0.003922
0.239188 -0.299622 -0.099355 0.000000 -1.003814 -0.003922
0.069477 -0.089687 0.000572 0.003922 0.000000 1.003814
0.300484 -0.249539 -0.009759 1.003814 0.003922 0.000000
0.109522 -0.299601 -0.189424 0.003922 -1.003814 0.000000
0.209754 -0.168203 0.000539 0.003922 0.000000 1.003814
0.019688 -0.199777 0.000698 -0.003922 0.000000 1.003814
0.039498 0.000628 -0.019507 -0.000000 1.003814 0.003922
0.139667 -0.099328 -0.000567 0.003922 0.000000 1.003815
0.199777 -0.139788 0.000698 -0.000000 -0.003922 1.003814
0.137987 -0.300540 -0.239819 0.000000 -1.003814 -0.003922
0.259489 -0.129914 -0.193899 0.552941 0.005546 -0.831890
0.279646 -0.128824 -0.000488 0.000000 0.003922 1.003814
0.149682 -0.019846 0.000602 0.003922 0.000000 1.003814
0.219466 0.000555 -0.129138 0.003921 1.003814 -0.000000
-0.000679 -0.159499 -0.128621 -1.003814 0.000000 -0.003922
-0.020574 -0.269465 -0.153083 -0.552941 0.005546 -0.831890
0.049303 -0.028014 -0.000622 -0.003922 0.000000 1.003814
0.259864 0.014478 -0.189877 -0.003922 1.003814 0.000000
0.039377 -0.199777 0.000698 -0.003922 0.000000 1.003814
-0.000658 -0.018590 -0.109763 -1.003814 -0.003922 0.000000
-0.000619 -0.209823 -0.019163 -1.003814 -0.003922 0.000000
0.324645 -0.269632 -0.149401 0.560140 -0.003922 -0.831890
0.080818 -0.279898 -0.219474 -0.554594 0.005546 -0.835294
0.059032 -0.119026 0.000585 0.000000 0.003922 1.003814
0.049221 -0.199777 0.000698 -0.003922 0.000000 1.003814
0.000675 -0.149138 -0.129793 -1.003814 -0.000000 0.003922
0.019369 0.013451 -0.179909 -0.552941 -0.005546 -0.831890
0.299600 -0.189423 0.000000 1.003814 0.000000 0.003922
0.098514 -0.169769 0.000654 -0.000000 -0.003922 1.003814
0.069639 -0.199588 0.000525 0.003922 0.000000 1.003814
0.069823 -0.000639 -0.028990 0.000000 1.003814 -0.003922
0.204476 -0.039478 -0.230698 0.552941 -0.005546 -0.831890
0.000000 -0.079391 -0.089746 -1.000000 0.003921 0.003922
0.088688 -0.229806 -0.000572 0.000000 -0.003922 1.003814
0.099272 -0.199588 0.000525 0.003922 0.000000 1.003814
0.300450 -0.029302 -0.069831 1.003814 -0.003922 -0.000000
0.119855 -0.000660 -0.129235 0.000000 1.003814 -0.003922
0.299631 -0.259799 -0.149173 1.003814 0.000000 0.003922
0.029259 -0.089803 0.000623 -0.000000 -0.003922 1.003814
0.129442 -0.089746 0.000000 -0.003922 -0.003922 1.000000
0.009799 -0.169763 -0.173394 -0.560139 -0.003922 -0.831890
0.099780 -0.299576 -0.129563 0.003922 -1.003814 0.000000
0.229983 -0.046013 -0.000630 -0.003922 0.000000 1.003814
0.129738 0.000767 -0.069682 -0.000000 1.003814 0.003922
0.129535 -0.179464 0.000533 0.003922 0.000000 1.003814
0.049334 -0.189750 -0.000528 0.003922 0.000000 1.003815
0.058144 -0.300454 -0.059260 0.000000 -1.003814 0.003922
0.300476 -0.008670 -0.029669 1.003814 0.000000 -0.003922
0.169321 -0.199777 0.000698 -0.003922 0.000000 1.003814
0.179165 -0.199777 0.000698 -0.003922 0.000000 1.003814
0.089746 -0.039695 0.000000 -0.003922 -0.003922 1.000000
0.099351 -0.300522 -0.128793 0.000000 -1.003814 -0.003922
0.099909 -0.299561 -0.139937 0.000000 -1.003814 -0.003922
0.019483 0.006197 -0.179991 -0.552941 -0.005546 -0.831890
0.098982 -0.259793 -0.232751 -0.552941 0.005546 -0.831890
0.159772 -0.001150 -0.089454 0.003921 1.003814 0.000000
0.259887 -0.199777 0.000698 -0.003922 0.000000 1.003814
0.259978 -0.279904 -0.193916 0.552941 -0.005546 -0.831890
0.219893 -0.039498 0.000627 -0.003922 0.000000 1.003814
0.209366 -0.089124 0.000702 -0.000000 -0.003922 1.003814
0.069824 -0.139515 -0.000640 0.000000 -0.003922 1.003814
0.126936 -0.218820 -0.249827 -0.552941 0.000000 -0.826345
0.069455 -0.009208 0.000614 -0.003922 0.000000 1.003814
0.000488 -0.279646 -0.109432 -1.003814 0.000000 -0.003922
0.209982 -0.139132 0.000551 0.003922 0.000000 1.003814
0.169381 0.006980 -0.169954 0.317647 -0.000000 0.948355
-0.008842 -0.219945 -0.159207 -0.552941 0.000000 -0.826345
-0.024327 -0.189997 -0.149362 -0.554594 0.005546 -0.835294
0.058680 -0.189848 0.000000 -0.003922 -0.003922 1.000000
0.149671 -0.029259 0.000623 -0.003922 0.000000 1.003814
0.299518 -0.249901 -0.001806 1.003814 0.003922 0.000000
0.129428 -0.209560 -0.000519 0.003922 0.000000 1.003815
0.319945 -0.259737 -0.152536 0.560140 -0.003922 -0.831890
0.324645 -0.239800 -0.149401 0.560140 -0.003922 -0.831890
0.179376 -0.000639 -0.069823 -0.003922 1.003814 -0.000000
0.049884 -0.058938 0.000632 -0.000000 -0.003922 1.003814
0.209763 -0.000593 -0.039751 -0.003922 1.003814 0.000000
0.002080 -0.139660 -0.069953 -1.003814 -0.003922 0.000000
-0.021117 -0.069828 -0.153003 -0.552941 -0.005546 -0.831890
0.089746 -0.079391 0.000000 -0.003922 -0.003922 1.000000
0.179605 0.000623 -0.029259 -0.003922 1.003814 0.000000
0.000621 -0.249599 -0.025479 -1.003814 -0.003922 -0.000000
0.199588 -0.189654 0.000525 0.000000 0.003922 1.003814
0.058680 0.000000 -0.179493 0.003922 1.000000 0.003922
0.258019 -0.269898 -0.195213 0.552941 -0.005546 -0.831890
0.049731 -0.179584 -0.199594 -0.552941 0.003921 -0.835294
0.139797 0.000000 -0.169137 0.003922 1.000000 0.003922
0.279646 -0.000489 -0.159299 -0.000000 1.003814 0.003922
-0.000666 -0.129857 -0.139383 -1.003814 0.000000 -0.003922
0.189750 -0.029899 -0.000528 0.000000 0.003922 1.003814
0.019845 0.000601 -0.079944 0.000000 1.003814 -0.003922
-0.000596 -0.079404 -0.029267 -1.003814 0.003921 -0.000000
0.149886 -0.300558 -0.179165 0.003922 -1.003814 0.000000
0.184862 -0.119751 -0.243746 0.554594 0.005546 -0.835294
0.022316 -0.239959 -0.179969 -0.552941 0.003921 -0.835294
0.079109 -0.129856 0.000667 -0.003922 0.000000 1.003814
0.079391 -0.139797 0.000000 -0.003922 -0.003922 1.000000
-0.017397 -0.138263 -0.149596 0.552941 0.000000 0.826345
0.300483 -0.009760 -0.069926 1.003814 0.000000 0.003922
0.139783 0.000100 -0.056949 -0.003922 1.000000 -0.003922
0.009990 -0.309686 -0.173107 -0.552941 0.003921 -0.835294
0.000603 -0.219795 -0.018674 -1.003814 -0.003922 0.000000
0.269239 -0.189848 0.000000 -0.003922 -0.003922 1.000000
0.279811 -0.047192 -0.180509 0.552941 -0.005546 -0.831890
0.089746 -0.179493 0.000000 -0.003922 -0.003922 1.000000
0.199585 -0.189287 -0.233764 0.552941 0.005546 -0.831890
0.019547 -0.138980 -0.180419 -0.554594 -0.005546 -0.835294
0.279516 -0.198749 -0.180471 0.554594 0.005546 -0.835294
0.159660 -0.179464 0.000533 0.003922 0.000000 1.003814
0.269709 -0.299485 -0.079879 0.003922 -1.003814 -0.000000
-0.000696 -0.199779 -0.059065 -1.003814 0.000000 -0.003922
0.259472 0.000500 -0.088743 0.000000 1.003814 -0.003922
0.169137 -0.119086 0.000000 -0.003922 -0.003922 1.000000
-0.011481 -0.209706 -0.159191 -0.552941 0.005546 -0.831890
0.289780 -0.300438 -0.099035 -0.003921 -1.003814 -0.000000
0.099798 -0.138563 -0.233470 -0.552941 -0.003922 -0.835294
0.004282 -0.179958 0.000612 -0.000000 -0.003922 1.003814
0.208952 -0.299609 -0.209997 0.000000 -1.003814 -0.003922
0.082337 -0.088238 -0.219951 -0.552941 0.000000 -0.826345
0.029259 -0.179605 0.000623 -0.000000 -0.003922 1.003814
0.099411 -0.179464 0.000533 0.003922 0.000000 1.003814
0.049899 -0.300475 -0.008670 -0.003921 -1.003814 -0.000000
0.109954 -0.179464 0.000533 0.003922 0.000000 1.003814
0.000000 -0.279594 -0.129442 -1.000000 0.003921 0.003922
0.219260 -0.299613 -0.139861 0.000000 -1.003814 -0.003922
0.239617 -0.149016 0.000508 0.000000 0.003922 1.003814
0.119086 -0.179493 0.000000 -0.003922 -0.003922 1.000000
0.139797 -0.179493 0.000000 -0.003922 -0.003922 1.000000
0.269771 -0.300364 -0.099920 0.000000 -1.003814 0.003922
0.300499 -0.219643 -0.039991 1.003814 0.003922 0.000000
0.077935 -0.149386 -0.000643 0.000000 -0.003922 1.003814
0.219656 -0.000550 -0.138247 -0.003922 1.003814 0.000000
0.248914 -0.299563 -0.099911 -0.003921 -1.003814 0.000000
0.289950 -0.179493 0.000000 -0.003922 -0.003922 1.000000
-0.005502 -0.179830 -0.056832 -0.149740 -0.003922 -0.987177
0.119086 0.000000 -0.189848 0.003922 1.000000 0.003922
0.000000 -0.029340 -0.139797 -1.000000 0.003921 0.003922
-0.000614 -0.069455 -0.009208 -1.003814 -0.003922 0.000000
0.199777 -0.129944 0.000698 -0.000000 -0.003922 1.003814
0.153669 -0.249602 -0.264724 0.552941 -0.005546 -0.831890
0.139797 -0.169137 0.000000 -0.003922 -0.003922 1.000000
0.138599 -0.000660 -0.119855 -0.003922 1.003814 -0.000000
0.036925 -0.169938 0.000626 -0.000000 -0.003922 1.003814
0.039695 0.000000 -0.089746 0.003922 1.000000 0.003922
0.069036 -0.169137 0.000000 -0.003922 -0.003922 1.000000
0.299622 -0.239188 -0.149566 1.003814 0.000000 0.003922
0.029479 -0.299498 -0.185653 -0.552941 0.005546 -0.831890
0.299469 -0.300715 -0.117301 1.003814 -0.003922 0.000000
0.149328 -0.009208 0.000614 -0.003922 0.000000 1.003814
0.000562 -0.109798 -0.149703 -1.003814 0.000000 -0.003922
0.000639 -0.069824 -0.028990 -1.003814 -0.000000 0.003922
0.168614 -0.169913 0.000684 -0.000000 -0.003922 1.003814
0.179493 -0.169137 0.000000 -0.003922 -0.003922 1.000000
0.099828 0.000668 -0.129855 -0.003922 1.003814 0.000000
0.049731 -0.259706 -0.199594 -0.552941 0.003921 -0.835294
0.259472 -0.169035 0.000499 0.000000 0.003922 1.003814
0.098668 -0.000529 -0.189749 -0.003922 1.003814 0.000000
0.000674 -0.049627 -0.149137 -1.003814 -0.003922 -0.000000
0.159744 -0.229740 -0.000541 0.000000 0.003922 1.003814
0.059642 -0.219459 -0.206657 -0.552941 -0.003922 -0.835294
0.049527 -0.299539 -0.119590 0.000000 -1.003814 -0.003922
0.279823 -0.169452 0.000733 -0.000000 -0.003922 1.003814
0.000502 -0.248978 -0.059751 -1.003814 0.000000 -0.003922
0.000618 -0.169607 -0.017927 -1.003814 -0.003922 -0.000000
-0.017622 -0.119691 -0.149461 0.552941 0.000000 0.826345
0.069535 -0.298789 -0.213597 -0.552941 -0.005546 -0.831890
0.148971 0.000546 -0.158972 0.000000 1.003814 -0.003922
0.299452 -0.108655 -0.157143 1.003814 0.003922 -0.000000
0.139944 -0.039606 -0.259322 -0.552941 -0.005546 -0.831890
-0.016778 -0.189346 -0.149966 0.552941 0.000000 0.826345
0.014164 -0.299512 -0.119856 0.000000 -1.003814 0.003922
0.029942 -0.299530 -0.019857 0.000000 -1.003814 -0.003922
0.239899 -0.129442 0.000000 -0.003922 -0.003922 1.000000
-0.000614 -0.009208 -0.149329 -1.003814 0.000000 -0.003922
0.204826 -0.315021 -0.230693 0.552941 -0.005546 -0.831890
0.218355 -0.219006 -0.000515 0.000000 0.003922 1.003814
0.279646 -0.199470 -0.000488 0.000000 0.003922 1.003814
0.108999 -0.229817 -0.239094 -0.552941 0.003921 -0.835294
0.118985 -0.069520 0.000559 0.000000 0.003922 1.003814
0.299562 -0.219193 -0.099910 1.003814 0.003922 0.000000
0.089237 -0.300494 -0.028811 0.003922 -1.003814 0.000000
0.128524 -0.259930 -0.000665 0.000000 0.003922 1.003814
0.299583 -0.149700 0.000000 1.003814 0.000000 0.003922
-0.009449 -0.189910 -0.159850 -0.554594 -0.003922 -0.837436
0.048621 -0.269685 -0.000631 0.000000 -0.003922 1.003814
0.129823 0.008733 -0.189929 0.399307 0.027730 0.913726
0.059032 -0.039675 0.000585 0.000000 0.003922 1.003814
0.168934 -0.159498 0.000680 -0.003922 0.000000 1.003814
0.189047 -0.315278 -0.239995 0.552941 -0.005546 -0.831890
0.209561 -0.000518 -0.129428 -0.000000 1.003814 0.003922
0.179464 -0.159660 0.000533 0.000000 0.003922 1.003814
0.098513 0.000654 -0.049824 -0.000000 1.003814 0.003922
0.219751 -0.299531 -0.029943 0.003922 -1.003814 0.000000
0.169776 0.000547 -0.148973 0.003921 1.003814 -0.000000
-0.011651 -0.109001 -0.159343 -0.552941 -0.005546 -0.831890
0.219366 -0.300574 -0.139903 0.000000 -1.003814 -0.003922
0.219367 -0.109763 0.000658 -0.003922 0.000000 1.003814
0.109870 0.000572 -0.089687 0.003921 1.003814 -0.000000
0.189288 -0.028960 -0.240809 0.552941 -0.005546 -0.831890
0.000000 -0.029340 -0.029340 -1.000000 0.003921 0.003922
0.189848 -0.158782 0.000000 -0.003922 -0.003922 1.000000
0.199777 -0.149632 0.000698 -0.000000 -0.003922 1.003814
0.219867 0.000585 -0.059032 0.003921 1.003814 -0.000000
0.149655 -0.239601 -0.266252 0.552941 0.005546 -0.831890
0.299452 -0.259220 -0.157143 1.003814 0.003922 -0.000000
-0.000632 -0.049883 -0.019646 -1.003814 0.000000 -0.003922
0.280065 -0.204991 -0.180125 0.552941 0.005546 -0.831890
0.209248 -0.159498 0.000680 -0.003922 0.000000 1.003814
0.169278 -0.279673 -0.000536 0.000000 0.003922 1.003814
-0.000698 -0.199777 -0.149632 -1.003814 0.000000 -0.003922
0.219070 -0.159390 0.000706 -0.000000 -0.003922 1.003814
0.229740 -0.158661 0.000542 0.003922 0.000000 1.003814
-0.020073 -0.006518 -0.153841 -0.554594 -0.005546 -0.835294
0.259868 -0.013903 -0.000604 0.003922 0.000000 1.003815
0.000635 -0.059146 -0.008994 -1.003814 -0.000000 0.003922
0.239941 -0.300484 -0.009759 0.003922 -1.003814 0.000000
0.139336 -0.149137 -0.000673 -0.003922 0.000000 1.003814
0.249562 -0.159498 0.000680 -0.003922 0.000000 1.003814
0.000580 -0.149447 -0.069095 -1.003814 -0.003922 0.000000
0.000000 -0.119196 -0.158392 0.552941 -0.003922 0.835294
0.300450 -0.239513 -0.069831 1.003814 -0.003922 -0.000000
0.259472 -0.159175 0.000499 0.000000 0.003922 1.003814
0.289876 -0.159498 0.000680 -0.003922 0.000000 1.003814
-0.000568 -0.269701 -0.098192 -1.003814 0.003921 -0.000000
0.169540 0.000379 -0.038362 -1.000000 -0.000000 0.005546
0.000640 -0.028990 -0.069824 -1.003814 -0.003922 -0.000000
0.299525 -0.279893 -0.017332 1.003814 0.003922 0.000000
-0.024676 -0.179557 -0.149478 -0.552941 -0.000000 -0.826345
0.198233 -0.299993 -0.234277 0.552941 -0.003922 -0.835294
0.249678 -0.258840 -0.000498 0.003922 0.000000 1.003815
0.003043 -0.149765 0.000609 0.000000 0.003922 1.003814
0.058650 -0.148972 0.000547 0.003922 0.000000 1.003814
0.309954 -0.249219 -0.160592 0.552941 -0.005546 -0.831890
-0.009078 0.014465 -0.159967 -0.003922 1.003814 0.000000
0.239899 -0.058680 0.000000 -0.003922 -0.003922 1.000000
0.019821 -0.199630 -0.179660 -0.552941 0.003921 -0.835294
0.089232 -0.300421 -0.138894 -0.003921 -1.003814 -0.000000
0.159819 0.005467 0.000606 -0.003922 0.000000 1.003814
-0.000561 -0.189599 -0.118987 -1.003814 0.003921 -0.000000
0.000567 -0.089900 -0.099327 -1.003814 -0.003922 0.000000
0.269761 -0.238946 -0.000506 0.003922 0.000000 1.003815
0.098514 -0.149471 0.000654 -0.000000 -0.003922 1.003814
0.199913 -0.299473 -0.107728 0.003922 -1.003814 -0.000000
0.019846 -0.059533 0.000602 0.000000 0.003922 1.003814
0.249628 0.000503 -0.169055 0.000000 1.003814 -0.003922
0.000000 -0.008629 -0.139797 -1.000000 0.003921 0.003922
0.119414 -0.119960 -0.246682 -0.552941 -0.005546 -0.831890
-0.000533 -0.179463 -0.118992 -1.003814 -0.000000 0.003922
0.141825 -0.169636 -0.259723 -0.552941 0.000000 -0.826345
0.048325 0.000000 -0.189848 0.003922 1.000000 0.003922
0.300450 -0.069831 -0.149058 1.003814 0.000000 -0.003922
-0.000534 -0.179464 0.000000 -1.003814 -0.000000 0.003922
0.000598 -0.028121 -0.099846 -1.003814 0.000000 -0.003922
0.118310 -0.149557 0.000662 -0.000000 -0.003922 1.003814
0.219965 -0.006684 -0.000607 0.003922 0.000000 1.003815
0.120233 -0.309943 -0.068586 -0.584314 -0.815253 -0.000000
0.189841 -0.148972 0.000547 0.003922 0.000000 1.003814
0.029754 0.015526 -0.179634 0.003921 1.003814 -0.000000
0.000601 -0.259802 -0.023413 -1.003814 -0.003922 0.000000
0.279823 -0.109524 0.000733 -0.000000 -0.003922 1.003814
0.009218 -0.269854 -0.173383 -0.552941 -0.005546 -0.831890
0.000498 -0.258840 -0.119902 -1.003814 0.000000 -0.003922
0.259472 0.000500 -0.029581 0.000000 1.003814 -0.003922
0.004282 -0.089979 0.000612 -0.000000 -0.003922 1.003814
0.259472 -0.029581 0.000499 0.000000 0.003922 1.003814
0.000563 -0.109797 -0.128999 -1.003814 0.000000 -0.003922
0.300433 -0.069836 -0.109836 1.003814 -0.003922 -0.000000
0.039776 -0.289709 -0.193277 -0.552941 0.005546 -0.831890
0.018710 0.000602 -0.019846 0.003921 1.003814 -0.000000
0.219070 -0.149428 0.000706 -0.000000 -0.003922 1.003814
0.000661 -0.299675 -0.119856 -1.003814 -0.003922 -0.000000
0.300746 -0.019164 0.000618 0.003922 0.000000 1.003814
0.229969 -0.148972 0.000547 0.003922 0.000000 1.003814
0.099272 0.000523 -0.199587 0.003921 1.003814 -0.000000
0.249629 -0.149166 0.000504 0.000000 0.003922 1.003814
0.189750 -0.139032 -0.000528 0.000000 0.003922 1.003814
-0.024507 -0.169760 -0.149591 -0.552941 -0.000000 -0.826345
-0.010031 -0.169810 -0.159680 -0.549048 -0.000000 -0.835294
0.079424 0.010939 -0.219947 -0.552941 0.005546 -0.831890
0.299661 -0.109992 -0.166802 0.552941 0.003922 -0.835294
-0.000545 -0.148971 -0.058650 -1.003814 -0.000000 0.003922
0.099909 -0.299561 -0.019814 0.000000 -1.003814 -0.003922
0.000000 -0.119086 -0.139797 -1.000000 0.003921 0.003922
0.289759 -0.000549 -0.138248 -0.003922 1.003814 0.000000
0.039498 -0.069160 0.000627 -0.000000 -0.003922 1.003814
0.058680 -0.139797 0.000000 -0.003922 -0.003922 1.000000
0.300000 -0.219878 -0.119604 1.000000 -0.003921 0.003922
0.300000 -0.259746 -0.129269 1.000000 -0.003921 0.003922
0.059032 -0.069432 0.000585 0.000000 0.003922 1.003814
0.000218 -0.139828 -0.108755 -0.443137 -0.003922 0.890196
0.299609 -0.208952 -0.069631 1.003814 0.000000 0.003922
0.069036 -0.139797 0.000000 -0.003922 -0.003922 1.000000
0.229959 -0.299716 -0.000480 0.003922 0.000000 1.003815
0.179557 -0.019459 -0.000686 0.000000 -0.003922 1.003814
0.059031 0.000584 -0.099188 0.000000 1.003814 -0.003922
0.300446 -0.279084 -0.078994 1.003814 -0.003922 -0.000000
-0.010152 -0.089918 -0.159683 -0.552941 0.003921 -0.835294
0.000602 -0.018675 -0.049411 -1.003814 0.000000 -0.003922
0.269685 -0.049884 0.000632 -0.003922 0.000000 1.003814
0.269546 -0.039498 0.000627 -0.003922 0.000000 1.003814
0.169137 -0.139797 0.000000 -0.003922 -0.003922 1.000000
0.089887 -0.119954 -0.226808 -0.552941 0.005546 -0.831890
0.189929 -0.159886 -0.239232 0.560140 -0.003922 -0.831890
0.289950 0.000000 -0.129442 0.003922 1.000000 0.003922
0.299544 -0.069566 -0.059056 1.003814 0.003922 0.000000
0.199913 -0.315559 -0.229790 0.000000 -1.003814 -0.003922
0.293469 -0.289928 -0.170463 0.554594 -0.003922 -0.837436
0.109763 -0.068784 0.000658 -0.000000 -0.003922 1.003814
-0.009352 -0.159762 -0.159762 -0.552941 0.005546 -0.831890
0.018730 -0.000662 -0.119857 -0.003922 1.003814 -0.000000
-0.000511 -0.289586 -0.165995 -0.549048 -0.000000 -0.835294
-0.025102 -0.149940 -0.149940 -0.827451 0.000000 0.560139
0.000661 -0.269707 -0.119856 -1.003814 -0.003922 -0.000000
0.239717 -0.299525 -0.017332 0.003922 -1.003814 0.000000
0.089686 0.000571 -0.019389 0.000000 1.003814 -0.003922
-0.010152 -0.149380 -0.159683 -0.552941 0.003921 -0.835294
0.259980 -0.300430 -0.118315 -0.003921 -1.003814 -0.000000
0.068784 0.000658 -0.109763 -0.003922 1.003814 0.000000
0.300200 -0.300510 -0.068928 0.003922 -1.003814 0.000000
0.079391 -0.119086 0.000000 -0.003922 -0.003922 1.000000
-0.000641 -0.099473 -0.068418 -1.003814 -0.003922 0.000000
0.203317 -0.049484 -0.231393 0.552941 0.005546 -0.831890
0.319637 -0.209233 -0.147800 -0.560140 0.003921 0.831890
0.018836 -0.129856 0.000667 -0.003922 0.000000 1.003814
0.259904 -0.239264 -0.193531 0.552941 0.005546 -0.831890
0.199588 -0.069639 0.000525 0.000000 0.003922 1.003814
0.129856 -0.009418 0.000667 -0.000000 -0.003922 1.003814
0.029285 -0.315346 -0.185866 -0.549048 -0.000000 -0.835294
0.128285 -0.178788 -0.249976 -0.549048 -0.000000 -0.835294
0.248316 -0.229626 -0.201085 0.552941 0.003922 -0.835294
0.269827 -0.059146 -0.000635 -0.003922 0.000000 1.003814
0.059031 0.000584 -0.069432 0.000000 1.003814 -0.003922
0.234202 -0.129446 -0.210966 0.552941 -0.005546 -0.831890
0.199389 -0.300394 -0.169626 0.000000 -1.003814 0.003922
0.039555 -0.129856 0.000667 -0.003922 0.000000 1.003814
0.209560 -0.239737 -0.000519 0.000000 0.003922 1.003814
0.219643 -0.300499 -0.039991 0.003922 -1.003814 0.000000
0.159888 -0.019846 0.000602 0.003922 0.000000 1.003814
0.109246 -0.129856 0.000667 -0.003922 0.000000 1.003814
0.205265 -0.099954 -0.230223 0.552941 -0.005546 -0.831890
0.148972 -0.069454 0.000547 0.000000 0.003922 1.003814
0.279823 -0.008266 0.000733 -0.000000 -0.003922 1.003814
-0.001902 -0.309996 -0.166007 -0.552941 -0.005546 -0.831890
0.009810 -0.099222 -0.173635 -0.552941 -0.005546 -0.831890
0.169520 -0.129856 0.000667 -0.003922 0.000000 1.003814
0.319962 -0.017172 -0.148014 -0.552941 -0.000000 0.826345
0.259936 -0.003043 0.000609 0.003922 0.000000 1.003814
0.299556 -0.088882 0.000000 1.003814 0.000000 0.003922
0.219466 -0.129138 0.000555 0.003922 0.000000 1.003814
0.118664 0.000668 -0.129855 -0.003922 1.003814 0.000000
0.059146 -0.239247 -0.000635 0.000000 -0.003922 1.003814
0.269348 -0.129856 0.000667 -0.003922 0.000000 1.003814
0.088882 -0.299556 -0.209058 0.000000 -1.003814 -0.003922
0.289950 -0.058680 0.000000 -0.003922 -0.003922 1.000000
0.149183 -0.299433 -0.199652 0.003922 -1.003814 -0.000000
0.279665 -0.300532 -0.118363 0.003922 -1.003814 0.000000
-0.000539 -0.168203 0.000000 -1.003814 -0.000000 0.003922
0.324645 -0.019505 -0.149401 0.560140 -0.003922 -0.831890
0.000661 -0.119856 -0.000000 -1.003814 -0.000000 0.003922
0.259943 -0.299589 -0.159467 0.003922 -1.003814 0.000000
0.051961 -0.059914 -0.199713 -0.552941 0.003921 -0.835294
0.016662 -0.109965 0.000618 -0.000000 -0.003922 1.003814
0.049884 -0.119662 0.000632 -0.000000 -0.003922 1.003814
0.219188 0.000000 -0.139797 0.003922 1.000000 0.003922
0.129196 -0.000536 -0.169278 -0.003922 1.003814 0.000000
0.079830 0.000532 -0.179463 0.003921 1.003814 -0.000000
0.300493 -0.139433 -0.028811 1.003814 0.003922 0.000000
-0.000507 -0.239617 -0.138986 -1.003814 -0.000000 0.003922
0.067935 -0.119886 0.000581 0.000000 0.003922 1.003814
0.089687 -0.119565 0.000572 0.000000 0.003922 1.003814
0.269952 0.001724 -0.187040 0.552941 0.005546 -0.831890
0.098514 -0.119946 0.000654 -0.000000 -0.003922 1.003814
0.138893 -0.300420 -0.149910 0.000000 -1.003814 0.003922
0.159580 -0.118985 0.000559 0.003922 0.000000 1.003814
0.088887 -0.000647 -0.089923 0.000000 1.003814 -0.003922
0.029669 -0.300475 -0.008670 -0.003921 -1.003814 -0.000000
0.209367 0.000701 -0.209938 -0.000000 1.003814 0.003922
0.249629 -0.119333 0.000504 0.000000 0.003922 1.003814
0.149703 -0.108672 0.000564 0.003922 0.000000 1.003814
0.048608 -0.300458 -0.149488 0.000000 -1.003814 0.003922
0.019821 -0.049554 -0.179660 -0.552941 0.003921 -0.835294
0.179701 -0.309737 -0.036991 0.003922 0.000000 1.003815
0.161533 -0.209830 -0.259031 0.552941 0.003922 -0.835294
-0.000632 -0.099837 -0.047272 -1.003814 -0.003922 0.000000
0.269561 -0.109763 0.000658 -0.003922 0.000000 1.003814
0.219378 -0.139971 -0.220184 0.552941 -0.003922 -0.835294
0.000000 -0.079391 -0.029340 -1.000000 0.003921 0.003922
0.300595 0.000645 -0.079224 0.003921 1.003814 0.000000
0.021237 -0.219452 -0.179660 -0.552941 -0.003922 -0.835294
0.153226 -0.069637 -0.264871 0.552941 -0.005546 -0.831890
-0.009114 -0.009542 -0.159923 -0.552941 0.005546 -0.831890
0.097059 -0.119179 -0.229602 -0.552941 -0.000000 -0.826345
0.098668 -0.189750 -0.000528 0.003922 0.000000 1.003815
0.229431 -0.109840 0.000512 0.000000 0.003922 1.003814
0.069824 -0.039861 -0.000640 0.000000 -0.003922 1.003814
0.139484 -0.000523 -0.198835 -0.003922 1.003814 0.000000
0.088823 -0.300523 -0.099350 0.003922 -1.003814 0.000000
-0.018225 -0.069973 -0.149101 0.552941 0.000000 0.826345
0.079886 -0.299553 -0.209629 0.000000 -1.003814 -0.003922
0.109763 -0.098529 0.000658 -0.000000 -0.003922 1.003814
0.161018 0.006370 -0.259780 0.554594 0.005546 -0.835294
0.005986 0.015600 -0.169955 0.000000 1.003814 -0.003922
0.004622 -0.159516 -0.169919 -0.552941 -0.003922 -0.835294
0.220151 0.007193 -0.220215 0.552941 -0.005546 -0.831890
0.233732 -0.259802 -0.210952 0.552941 0.005546 -0.831890
0.119946 -0.098514 0.000654 -0.003922 0.000000 1.003814
0.159498 -0.099825 0.000680 -0.000000 -0.003922 1.003814
0.209366 -0.099027 0.000702 -0.000000 -0.003922 1.003814
0.299521 -0.179787 -0.007030 1.003814 0.003922 0.000000
0.000567 -0.229567 -0.099327 -1.003814 -0.003922 0.000000
0.139451 0.011728 -0.259944 -0.552941 0.005546 -0.831890
0.198100 -0.088943 -0.234987 0.552941 -0.005546 -0.831890
-0.000499 -0.259472 -0.139454 -1.003814 -0.000000 0.003922
-0.023978 -0.109493 -0.149921 -0.827451 -0.003922 0.560784
0.116705 -0.309998 -0.117896 0.003922 0.003922 1.000000
0.059868 -0.029259 0.000623 -0.003922 0.000000 1.003814
